ncols         177
nrows         44
xllcorner     799600.00012
yllcorner     2651774.38755
cellsize      200.00000   
NODATA_value  -9999.00000 
272.0000    255.0000    319.0000    306.0000    335.0000    375.0000    414.0000    456.0000    455.0000    433.0000    455.0000    416.0000    360.0000    330.0000    287.0100    314.0000    369.0000    514.0000    580.0000    653.0000    702.0000    696.0000    720.0000    754.0000    812.0000    822.0000    756.0000    742.0000    704.0000    652.0000    635.0000    567.0000    599.0000    587.0000    596.0000    606.0000    645.0000    694.0000    805.0000    838.0000    838.0000    897.0000    952.0000    971.0000    932.0000    908.0000    847.0000    774.0000    774.0000    716.0000    695.0000    696.0000    637.0000    606.0000    618.0000    585.0000    473.0000    361.0000    340.0000    358.0000    352.0000    355.0000    315.0000    352.0000    410.0000    506.0000    524.0000    426.0000    349.0000    330.0000    277.0000    361.0000    318.0000    465.0000    503.0000    578.0000    580.0000    515.0000    454.0000    454.0000    399.0000    372.0000    402.0000    353.0000    325.0000    311.0000    278.0000    285.0000    285.0000    288.0000    272.0000    228.0200    247.0000    258.0000    269.0000    263.0000    220.0000    203.0000    199.0000    213.0000    226.0000    212.0000    201.0000    202.0000    186.0000    201.0000    185.0000    178.0000    176.3800    176.3700    176.3600    176.3500    211.0000    200.0000    176.3200    176.3100    176.3000    176.2900    176.2800    176.2700    176.2700    180.0000    235.0000    242.0000    234.0000    225.0000    265.0000    321.0000    316.0000    290.0000    345.0000    367.0000    392.0000    356.0000    342.0000    349.0000    310.0000    271.0000    260.0300    260.0300    287.0000    295.0000    347.0000    421.0000    498.0000    537.0000    512.0000    467.0000    479.0000    419.0000    451.0000    398.0000    384.0000    419.0000    450.0000    530.0000    537.0000    581.0000    640.0000    661.0000    596.0000    522.0100    555.0000    572.0000    592.0000    642.0000    710.0000    727.0000    742.0000    735.0000    756.0000    656.0000    576.0000    490.0000    480.0000    450.0000    472.0000
274.0000    248.0000    311.0000    262.0100    305.0000    368.0000    416.0000    421.0000    378.0000    366.0000    388.0000    359.0000    316.0000    287.0000    289.0000    374.0000    470.0000    564.0000    625.0000    687.0000    716.0000    730.0000    765.0000    800.0000    851.0000    873.0000    802.0000    802.0000    728.0000    676.0000    638.0000    574.0000    567.0100    577.0000    592.0000    605.0000    671.0000    719.0000    812.0000    830.0000    817.0000    891.0000    877.0000    946.0000    947.0000    848.0000    807.0000    738.0000    719.0000    688.0000    644.0000    638.0000    596.0000    564.0000    591.0000    548.0000    465.0000    355.0000    381.0000    335.0000    352.0000    334.0000    301.0200    377.0000    411.0000    430.0000    483.0000    363.0000    287.0000    248.0100    302.0000    272.0000    343.0000    425.0000    454.0000    545.0000    537.0000    514.0000    470.0000    464.0000    377.0000    306.0000    339.0000    305.0000    300.0000    287.0000    290.0000    260.0000    253.0000    250.0000    250.0000    252.0000    288.0000    251.0000    239.0000    237.0000    217.0000    214.0000    189.0300    194.0000    219.0000    205.0000    200.0000    182.0000    184.0000    186.0000    185.0000    180.0000    176.3800    176.3700    197.0000    220.0000    215.0000    217.0000    190.0000    176.3100    176.3000    176.2900    176.2800    176.2800    193.0000    219.0000    246.0000    272.0000    280.0000    251.0000    283.0000    309.0000    343.0000    324.0000    374.0000    379.0000    376.0000    290.0000    296.0000    313.0000    260.0500    260.0400    260.0400    260.0400    265.0000    292.0000    341.0000    404.0000    444.0000    493.0000    567.0000    558.0000    569.0000    482.0000    486.0000    409.0000    384.0100    384.0100    392.0000    496.0000    532.0000    526.0000    588.0000    618.0000    655.0000    566.0000    530.0000    596.0000    663.0000    682.0000    715.0000    742.0000    766.0000    778.0000    733.0000    638.0000    556.0000    483.0000    477.0000    445.0000    480.0000
243.0000    278.0000    300.0000    262.0000    300.0000    355.0000    366.0000    399.0000    363.0000    321.0000    303.0000    292.0000    267.0000    280.0000    343.0000    398.0000    498.0000    574.0000    685.0000    749.0000    742.0000    806.0000    832.0000    875.0000    915.0000    934.0000    858.0000    813.0000    740.0000    687.0000    673.0000    592.0000    587.0000    585.0000    595.0000    630.0000    694.0000    752.0000    833.0000    802.0000    805.0000    867.0000    847.0000    939.0000    909.0000    830.0000    800.0000    731.0000    706.0000    670.0000    622.0000    622.0000    577.0000    527.0000    507.0000    463.0000    416.0000    402.0000    366.0000    325.0000    310.0000    301.0100    301.0100    339.0000    361.0000    434.0000    432.0000    302.0000    248.0100    248.0000    278.0000    260.0000    337.0000    378.0000    506.0000    462.0000    490.0000    461.0000    401.0000    367.0000    314.0000    289.0000    269.0000    333.0000    286.0000    264.0000    245.0000    253.0000    234.0000    235.0000    247.0000    279.0000    300.0000    249.0000    203.0000    215.0000    231.0000    223.0000    193.0000    189.0200    196.0000    196.0000    202.0000    186.0000    179.0000    177.0000    186.0000    178.0000    176.3800    197.0000    207.0000    235.0000    243.0000    227.0000    214.0000    198.0000    188.0000    176.2900    176.2900    176.2900    199.0000    248.0000    304.0000    304.0000    291.0000    289.0000    300.0000    305.0000    313.0000    339.0000    331.0000    305.0000    290.0000    275.0000    260.0700    260.0600    260.0500    260.0500    260.0500    261.0000    262.0000    277.0000    316.0000    335.0000    362.0000    429.0000    508.0000    527.0000    545.0000    516.0000    496.0000    462.0000    405.0000    388.0000    384.0200    490.0000    470.0000    519.0000    528.0000    571.0000    655.0000    621.0000    596.0000    625.0000    641.0000    694.0000    688.0000    733.0000    730.0000    730.0000    690.0000    589.0000    524.0000    492.0000    460.0000    440.0000    479.0000
270.0000    258.0000    258.0000    266.0000    286.0000    309.0000    346.0000    369.0000    304.0000    308.0000    254.0800    254.0800    265.0000    314.0000    391.0000    485.0000    549.0000    613.0000    713.0000    751.0000    791.0000    842.0000    831.0000    886.0000    976.0000   1019.0000    891.0000    788.0000    740.0000    699.0000    676.0000    613.0000    603.0000    617.0000    624.0000    620.0000    700.0000    730.0000    763.0000    763.0000    808.0000    831.0000    817.0000    843.0000    854.0000    774.0000    780.0000    747.0000    703.0000    672.0000    632.0000    602.0000    531.0000    536.0000    511.0000    494.0000    443.0000    397.0000    348.0000    340.0000    332.0000    331.0000    301.0000    323.0000    395.0000    414.0000    370.0000    272.0000    273.0000    272.0000    235.0100    255.0000    297.0000    423.0000    397.0000    382.0000    410.0000    384.0000    319.0000    275.0000    249.0000    281.0000    261.0000    301.0000    286.0000    262.0000    256.0000    225.0000    217.0000    248.0000    268.0000    266.0000    298.0000    237.0000    204.0000    198.0000    221.0000    200.0000    214.0000    203.0000    189.0100    189.0000    187.0000    188.0000    178.0000    176.4100    176.4000    176.3900    177.0000    235.0000    256.0000    287.0000    283.0000    243.0000    234.0000    229.0000    209.0000    195.0000    189.0000    193.0000    231.0000    260.0000    296.0000    268.0000    301.0000    262.0000    258.0000    310.0000    313.0000    303.0000    272.0000    260.1000    260.0900    260.0800    260.0700    260.0600    260.0600    260.0600    260.0600    260.0600    262.0000    283.0000    293.0000    310.0000    311.0000    347.0000    431.0000    449.0000    475.0000    544.0000    473.0000    441.0000    411.0000    421.0000    402.0000    465.0000    502.0000    513.0000    561.0000    596.0000    640.0000    632.0000    670.0000    672.0000    686.0000    666.0000    696.0000    694.0000    725.0000    681.0000    608.0000    591.0000    555.0000    491.0000    439.0000    438.0000    490.0000
255.0000    277.0000    249.0000    331.0000    342.0000    363.0000    345.0000    293.0000    272.0000    268.0000    254.0700    261.0000    315.0000    379.0000    435.0000    530.0000    628.0000    654.0000    735.0000    770.0000    784.0000    805.0000    841.0000    901.0000   1007.0000   1030.0000    902.0000    841.0000    762.0000    746.0000    711.0000    665.0000    651.0000    657.0000    675.0000    646.0000    693.0000    721.0000    771.0000    762.0000    770.0000    729.0000    731.0000    760.0000    778.0000    735.0000    766.0000    786.0000    722.0000    691.0000    639.0000    598.0000    607.0000    558.0000    583.0000    557.0000    520.0000    518.0000    432.0000    416.0000    439.0000    406.0000    384.0000    289.0000    275.0000    346.0000    273.0000    311.0000    365.0000    309.0000    235.0000    248.0000    297.0000    327.0000    294.0000    290.0000    290.0000    268.0000    249.0000    246.0000    239.0000    223.0000    260.0000    287.0000    290.0000    274.0000    256.0000    232.0000    207.0000    239.0000    247.0000    282.0000    288.0000    224.0000    228.0000    207.0000    196.0100    212.0000    192.0000    190.0000    194.0000    189.0000    182.0000    188.0000    193.0000    199.0000    176.4000    176.4000    211.0000    265.0000    338.0000    385.0000    358.0000    333.0000    268.0000    253.0000    223.0000    240.0000    206.0000    206.0000    226.0000    226.0000    225.0000    225.0000    220.0000    247.0000    267.0000    311.0000    352.0000    354.0000    308.0000    303.0000    260.0900    260.0800    260.0700    260.0700    260.0700    269.0000    284.0000    284.0000    260.0700    269.0000    269.0100    269.0200    314.0000    314.0000    322.0000    377.0000    417.0000    453.0000    569.0000    514.0000    522.0000    503.0000    433.0000    436.0000    433.0200    501.0000    538.0000    607.0000    652.0000    702.0000    746.0000    722.0000    735.0000    697.0000    726.0000    715.0000    716.0000    637.0000    563.0000    511.0000    497.0000    474.0000    434.0700    458.0000    538.0000
260.0000    260.0000    248.0000    330.0000    364.0000    350.0000    319.0000    291.0000    270.0000    254.0600    254.0600    269.0000    328.0000    358.0000    393.0000    464.0000    642.0000    690.0000    716.0000    775.0000    827.0000    878.0000    893.0000    899.0000   1004.0000   1030.0000    996.0000    866.0000    834.0000    832.0000    776.0000    718.0000    702.0000    682.0000    733.0000    697.0000    738.0000    760.0000    786.0000    748.0000    735.0000    681.0000    676.0000    693.0000    728.0000    714.0000    826.0000    761.0000    727.0000    695.0000    652.0000    646.0000    630.0000    611.0000    667.0000    629.0000    603.0000    559.0000    473.0000    416.0100    422.0000    402.0000    394.0000    372.0000    308.0000    273.0100    273.0100    351.0000    342.0000    280.0000    217.0000    235.0000    238.0000    285.0000    244.0000    258.0000    231.0000    232.0000    251.0000    231.0000    220.0000    216.0000    256.0000    294.0000    292.0000    253.0000    222.0000    240.0000    201.0500    252.0000    213.0000    237.0000    240.0000    224.0000    221.0000    201.0000    196.0000    198.0000    208.0000    198.0000    180.0000    177.0000    176.4700    199.0000    198.0000    187.0000    176.4100    181.0000    226.0000    308.0000    336.0000    392.0000    425.0000    351.0000    300.0000    271.0000    247.0000    251.0000    211.0000    206.0100    206.0100    206.0200    206.0300    206.0400    243.0000    282.0000    303.0000    326.0000    356.0000    359.0000    339.0000    331.0000    285.0000    271.0000    260.0800    260.0800    260.0800    260.0800    286.0000    311.0000    269.0000    274.0000    279.0000    310.0000    355.0000    369.0000    393.0000    390.0000    399.0000    468.0000    564.0000    591.0000    558.0000    527.0000    535.0000    433.0100    503.0000    563.0000    604.0000    624.0000    619.0000    696.0000    732.0000    770.0000    753.0000    743.0000    756.0000    704.0000    663.0000    645.0000    619.0000    507.0000    482.0000    442.0000    434.0600    484.0000    549.0000
272.0000    240.0000    291.0000    289.0000    332.0000    297.0000    276.0000    275.0000    266.0000    254.0500    254.0600    300.0000    317.0000    376.0000    434.0000    498.0000    639.0000    668.0000    727.0000    768.0000    805.0000    906.0000    942.0000    952.0000   1025.0000   1064.0000   1034.0000    940.0000    957.0000    924.0000    864.0000    793.0000    772.0000    743.0000    738.0000    740.0000    772.0000    790.0000    768.0000    769.0000    716.0000    675.0000    645.0000    651.0000    667.0000    718.0000    780.0000    790.0000    732.0000    698.0000    671.0000    658.0000    647.0000    673.0000    688.0000    670.0000    637.0000    564.0000    432.0000    464.0000    489.0000    428.0000    360.0000    350.0000    336.0000    302.0000    273.0200    362.0000    340.0000    272.0000    228.0000    213.0100    213.0000    213.0000    220.0000    233.0000    213.0000    228.0000    233.0000    243.0000    209.0000    231.0000    232.0000    283.0000    264.0000    252.0000    238.0000    213.0000    201.0400    228.0000    221.0000    212.0000    231.0000    202.0100    202.0000    186.0000    193.0000    182.0000    200.0000    193.0000    176.4800    176.4700    176.4600    188.0000    180.0000    181.0000    176.4200    225.0000    246.0000    271.0000    330.0000    397.0000    408.0000    371.0000    320.0000    303.0000    248.0000    224.0000    206.0200    221.0000    206.0200    240.0000    230.0000    275.0000    275.0000    334.0000    339.0000    368.0000    399.0000    374.0000    308.0000    286.0000    260.1000    260.0900    260.0900    260.0900    260.0900    260.0900    290.0000    339.0000    269.0100    313.0000    311.0000    325.0000    369.0000    456.0000    448.0000    471.0000    433.0000    480.0000    577.0000    627.0000    581.0000    538.0000    504.0000    433.0200    464.0000    484.0000    563.0000    586.0000    656.0000    675.0000    698.0000    759.0000    793.0000    798.0000    766.0000    686.0000    633.0000    570.0000    558.0000    506.0000    461.0000    438.0000    434.0500    497.0000    535.0000
237.0000    281.0000    287.0000    268.0000    311.0000    285.0000    254.0300    256.0000    254.0400    254.0500    275.0000    321.0000    352.0000    410.0000    472.0000    548.0000    674.0000    682.0000    713.0000    738.0000    789.0000    855.0000    929.0000    974.0000   1072.0000   1094.0000   1072.0000   1005.0000    979.0000    907.0000    846.0000    804.0000    794.0000    796.0000    714.0000    752.0000    800.0000    794.0000    801.0000    781.0000    746.0000    712.0000    681.0000    635.0000    687.0000    746.0000    778.0000    763.0000    719.0000    706.0000    730.0000    717.0000    701.0000    691.0000    643.0000    607.0000    589.0000    505.0000    469.0000    512.0000    515.0000    449.0000    426.0000    432.0000    437.0000    364.0000    316.0000    416.0000    354.0000    318.0000    290.0000    230.0000    217.0000    203.0000    212.0000    207.0000    208.0000    211.0000    247.0000    252.0000    200.0100    225.0000    214.0000    230.0000    241.0000    224.0100    224.0000    220.0000    201.0300    222.0000    201.0300    214.0000    228.0000    205.0000    206.0000    189.0000    182.0000    179.0000    176.5000    176.4900    176.4800    176.4700    176.4600    176.4500    176.4400    176.4300    180.0000    200.0000    236.0000    298.0000    351.0000    394.0000    358.0000    340.0000    291.0000    250.0000    210.0100    210.0000    240.0000    230.0000    242.0000    269.0000    271.0000    325.0000    292.0000    354.0000    399.0000    413.0000    407.0000    383.0000    338.0000    293.0000    260.1000    260.1000    260.1000    260.1000    260.1000    260.1000    298.0000    327.0000    270.0000    300.0000    331.0000    354.0000    410.0000    486.0000    502.0000    504.0000    478.0000    502.0000    629.0000    636.0000    585.0000    586.0000    534.0000    470.0000    438.0000    479.0000    555.0000    571.0000    696.0000    732.0000    754.0000    763.0000    804.0000    845.0000    754.0000    744.0000    689.0000    601.0000    559.0000    469.0000    441.0000    434.0400    434.0400    482.0000    525.0000
232.0000    252.0000    260.0000    292.0000    305.0000    271.0000    254.0200    254.0300    254.0400    254.0500    299.0000    354.0000    424.0000    476.0000    536.0000    609.0000    663.0000    704.0000    728.0000    751.0000    761.0000    812.0000    880.0000    927.0000    971.0000   1006.0000    984.0000    964.0000    943.0000    825.0000    766.0000    741.0000    762.0000    746.0000    701.0000    710.0000    758.0000    752.0000    742.0000    747.0000    754.0000    676.0000    644.0000    614.0000    704.0000    672.0000    690.0000    769.0000    766.0000    765.0000    775.0000    744.0000    703.0000    683.0000    635.0000    574.0000    576.0000    546.0000    494.0000    495.0000    490.0000    531.0000    480.0000    499.0000    473.0000    399.0000    425.0000    436.0000    357.0000    332.0000    302.0000    266.0000    211.0000    202.0000    202.0000    202.0000    203.0000    201.0000    208.0000    212.0000    200.0000    216.0000    207.0000    208.0000    239.0000    255.0000    237.0000    204.0000    201.0200    210.0000    201.0200    204.0000    230.0000    222.0000    222.0000    194.0000    176.5200    176.5100    178.0000    176.4900    179.0000    209.0000    205.0000    176.4500    179.0000    176.4400    176.4400    196.0000    252.0000    319.0000    357.0000    324.0000    297.0000    278.0000    253.0000    230.0000    213.0000    263.0000    274.0000    271.0000    302.0000    313.0000    311.0000    347.0000    346.0000    387.0000    447.0000    402.0000    377.0000    355.0000    334.0000    285.0000    297.0000    277.0000    289.0000    266.0000    260.1100    260.1100    274.0000    346.0000    315.0000    296.0000    320.0000    388.0000    403.0000    479.0000    527.0000    528.0000    551.0000    537.0000    605.0000    652.0000    631.0000    574.0000    532.0000    530.0000    465.0000    520.0000    524.0000    554.0000    613.0000    745.0000    762.0000    796.0000    807.0000    760.0000    731.0000    671.0000    631.0000    619.0000    598.0000    481.0000    435.0000    434.0300    437.0000    461.0000    503.0000
277.0000    262.0000    257.0000    263.0000    274.0000    254.0100    254.0200    254.0300    254.0400    277.0000    324.0000    398.0000    465.0000    518.0000    577.0000    635.0000    699.0000    690.0000    675.0000    676.0000    714.0000    749.0000    773.0000    858.0000    884.0000    902.0000    855.0000    866.0000    871.0000    794.0000    722.0000    676.0000    695.0000    710.0000    662.0000    659.0000    652.0000    660.0000    659.0000    662.0000    647.0000    647.0000    657.0000    599.0000    599.0000    625.0000    669.0000    640.0000    663.0000    674.0000    662.0000    617.0000    672.0000    616.0000    637.0000    546.0000    532.0000    510.0000    522.0000    507.0000    523.0000    547.0000    523.0000    517.0000    446.0000    456.0000    483.0000    374.0000    314.0000    258.0000    235.0000    223.0000    212.0000    203.0000    200.0100    200.0000    200.0000    198.0000    195.0000    194.0000    193.0000    194.0000    195.0000    200.0000    204.0000    221.0000    246.0000    217.0000    201.0200    201.0100    210.0000    246.0000    233.0000    232.0000    185.0000    176.5300    177.0000    177.0000    176.5000    205.0000    258.0000    259.0000    207.0000    176.4600    183.0000    182.0000    186.0000    191.0000    204.0000    284.0000    301.0000    305.0000    315.0000    309.0000    302.0000    288.0000    252.0000    287.0000    346.0000    308.0000    354.0000    385.0000    406.0000    420.0000    435.0000    458.0000    442.0000    416.0000    388.0000    377.0000    377.0000    364.0000    348.0000    296.0000    285.0000    260.1200    260.1200    260.1200    302.0000    350.0000    344.0000    362.0000    332.0000    351.0000    375.0000    442.0000    428.0000    500.0000    566.0000    602.0000    649.0000    700.0000    676.0000    663.0000    614.0000    543.0000    465.0100    509.0000    556.0000    627.0000    567.0000    620.0000    665.0000    726.0000    750.0000    683.0000    625.0000    612.0000    608.0000    611.0000    546.0000    462.0000    434.0300    434.0200    434.0200    434.0200    534.0000
232.0000    216.0000    218.0000    221.0000    254.0000    254.0100    254.0200    257.0000    302.0000    308.0000    326.0000    406.0000    472.0000    564.0000    634.0000    652.0000    613.0000    610.0000    626.0000    648.0000    686.0000    757.0000    808.0000    833.0000    850.0000    862.0000    824.0000    803.0000    803.0000    793.0000    779.0000    646.0000    697.0000    674.0000    610.0000    595.0000    610.0000    618.0000    605.0000    606.0000    588.0000    607.0000    599.0000    576.0000    562.0000    584.0000    589.0000    596.0000    608.0000    609.0000    612.0000    593.0000    604.0000    565.0000    572.0000    536.0000    510.0000    507.0200    507.0100    528.0000    519.0000    546.0000    551.0000    528.0000    505.0000    485.0000    446.0000    291.0000    251.0000    232.0000    218.0000    212.0100    216.0000    215.0000    211.0000    201.0000    198.0100    201.0000    196.0000    197.0000    194.0000    191.0000    189.0000    188.0000    189.0000    194.0000    210.0000    210.0000    218.0000    211.0000    201.0000    212.0000    203.0000    186.0000    177.0000    176.5400    178.0000    176.5100    224.0000    236.0000    264.0000    227.0000    207.0000    177.0000    189.0000    190.0000    191.0000    205.0000    220.0000    257.0000    315.0000    324.0000    331.0000    348.0000    329.0000    314.0000    323.0000    339.0000    363.0000    368.0000    395.0000    421.0000    445.0000    433.0000    440.0000    435.0000    424.0000    426.0000    388.0000    383.0000    386.0000    366.0000    341.0000    315.0000    288.0000    260.1300    260.1300    277.0000    310.0000    363.0000    349.0000    364.0000    375.0000    399.0000    405.0000    391.0000    430.0000    497.0000    559.0000    566.0000    640.0000    694.0000    669.0000    588.0000    538.0000    488.0000    487.0000    547.0000    606.0000    683.0000    659.0000    629.0000    687.0000    704.0000    754.0000    706.0000    634.0000    550.0000    543.0000    553.0000    546.0000    466.0000    453.0000    434.0200    434.0100    434.0100    536.0000
222.0000    212.0100    236.0000    235.0000    258.0000    254.0100    254.0200    259.0000    287.0000    308.0000    358.0000    444.0000    495.0000    580.0000    611.0000    627.0000    574.0000    635.0000    675.0000    671.0000    717.0000    809.0000    852.0000    866.0000    885.0000    859.0000    819.0000    798.0000    791.0000    751.0000    719.0000    628.0000    639.0000    638.0000    599.0000    576.0000    630.0000    631.0000    598.0000    569.0000    568.0000    591.0000    578.0000    560.0000    545.0000    547.0000    564.0000    569.0000    597.0000    582.0000    584.0000    578.0000    571.0000    539.0000    515.0000    507.0400    507.0300    507.0200    535.0000    547.0000    539.0000    555.0000    559.0000    522.0000    512.0000    442.0000    404.0000    274.0000    232.0100    235.0000    227.0000    239.0000    274.0000    265.0000    262.0000    234.0000    209.0000    211.0000    238.0000    234.0000    200.0000    197.0000    192.0000    189.0000    187.0000    188.0000    190.0000    228.0000    210.0000    189.0000    188.0000    192.0000    186.0000    182.0000    188.0000    205.0000    219.0000    207.0000    270.0000    312.0000    288.0000    242.0000    205.0000    179.0000    177.0100    178.0000    213.0000    221.0000    207.0000    281.0000    323.0000    344.0000    341.0000    349.0000    372.0000    373.0000    379.0000    408.0000    392.0000    424.0000    414.0000    418.0000    410.0000    395.0000    431.0000    451.0000    454.0000    420.0000    413.0000    387.0000    372.0000    359.0000    323.0000    304.0000    271.0000    260.1400    260.1400    297.0000    338.0000    320.0000    334.0000    400.0000    399.0000    437.0000    448.0000    444.0000    452.0000    458.0000    484.0000    520.0000    602.0000    682.0000    668.0000    620.0000    552.0000    498.0000    495.0000    564.0000    694.0000    737.0000    682.0000    635.0000    677.0000    702.0000    726.0000    690.0000    622.0000    572.0000    555.0000    503.0000    507.0000    502.0000    453.0000    459.0000    449.0000    434.0000    501.0000
212.0000    214.0000    240.0000    256.0000    270.0000    273.0000    254.0200    254.0300    272.0000    282.0000    350.0000    479.0000    528.0000    550.0000    540.0000    564.0000    616.0000    648.0000    638.0000    647.0000    691.0000    750.0000    804.0000    882.0000    915.0000    903.0000    846.0000    847.0000    850.0000    805.0000    720.0000    626.0000    580.0000    583.0000    587.0000    553.0000    589.0000    591.0000    588.0000    555.0000    553.0000    591.0000    566.0000    552.0000    538.0200    556.0000    564.0000    565.0000    560.0000    557.0000    576.0000    583.0000    598.0000    549.0000    513.0000    507.0400    507.0300    523.0000    524.0000    549.0000    554.0000    567.0000    550.0000    541.0000    489.0000    449.0000    378.0000    290.0000    257.0000    270.0000    262.0000    291.0000    301.0000    314.0000    279.0000    264.0000    246.0000    243.0000    301.0000    269.0000    230.0000    200.0000    193.0000    192.0000    194.0000    186.0000    190.0000    191.0000    184.0000    185.0000    184.0000    188.0000    183.0000    191.0000    196.0000    242.0000    224.0000    225.0000    319.0000    341.0000    266.0000    218.0000    204.0000    177.0200    177.0200    177.0200    187.0000    219.0000    228.0000    269.0000    327.0000    382.0000    393.0000    397.0000    450.0000    456.0000    428.0000    397.0000    406.0000    433.0000    401.0000    403.0000    390.0000    386.0000    429.0000    443.0000    446.0000    438.0000    418.0000    390.0000    396.0000    360.0000    349.0000    305.0000    264.0000    260.1500    289.0000    320.0000    303.0000    295.0000    355.0000    387.0000    409.0000    411.0000    452.0000    469.0000    503.0000    494.0000    499.0000    562.0000    659.0000    691.0000    693.0000    655.0000    592.0000    495.0100    528.0000    575.0000    698.0000    732.0000    658.0000    635.0100    654.0000    680.0000    683.0000    629.0000    621.0000    588.0000    576.0000    541.0000    496.0000    471.0000    478.0000    465.0000    436.0000    411.0000    417.0000
216.0000    238.0000    246.0000    269.0000    277.0000    313.0000    304.0000    254.0300    255.0000    292.0000    325.0000    412.0000    507.0000    535.0000    536.0000    595.0000    615.0000    598.0000    605.0000    641.0000    663.0000    751.0000    832.0000    928.0000    985.0000    973.0000    882.0000    896.0000    805.0000    745.0000    661.0000    615.0000    580.0000    546.0000    567.0000    540.0000    613.0000    590.0000    584.0000    562.0000    547.0000    556.0000    560.0000    557.0000    538.0100    538.0200    566.0000    548.0000    555.0000    580.0000    580.0000    592.0000    573.0000    547.0000    527.0000    515.0000    517.0000    546.0000    545.0000    546.0000    572.0000    574.0000    574.0000    476.0000    464.0000    422.0000    411.0000    387.0000    288.0000    294.0000    339.0000    371.0000    372.0000    359.0000    382.0000    322.0000    301.0000    322.0000    312.0000    252.0000    248.0000    199.0000    194.0000    191.0100    191.0000    188.0000    185.0000    183.0500    183.0400    183.0300    183.0200    183.0100    183.0100    232.0000    215.0000    243.0000    294.0000    282.0000    345.0000    290.0000    235.0000    222.0000    199.0000    190.0000    177.0300    177.0300    184.0000    226.0000    260.0000    343.0000    378.0000    403.0000    424.0000    440.0000    447.0000    452.0000    438.0000    403.0000    388.0100    426.0000    389.0000    398.0000    389.0000    379.0000    384.0000    410.0000    435.0000    412.0000    410.0000    410.0000    383.0000    377.0000    364.0000    326.0000    292.0000    260.1600    260.1600    260.1700    269.0000    342.0000    383.0000    418.0000    448.0000    425.0000    440.0000    491.0000    522.0000    545.0000    568.0000    605.0000    686.0000    743.0000    744.0000    645.0000    560.0000    509.0000    551.0000    612.0000    697.0000    729.0000    710.0000    667.0000    666.0000    705.0000    735.0000    660.0000    565.0000    548.0100    548.0000    510.0000    553.0000    454.0000    421.0000    440.0000    434.0000    415.0000    392.0000
220.0000    231.0000    249.0000    243.0100    258.0000    298.0000    360.0000    301.0000    304.0000    299.0000    353.0000    352.0000    466.0000    502.0000    524.0000    484.0000    515.0000    564.0000    626.0000    651.0000    693.0000    785.0000    858.0000    910.0000    996.0000   1011.0000    965.0000    891.0000    791.0000    733.0000    670.0000    601.0000    574.0000    566.0000    538.0400    538.0400    570.0000    587.0000    566.0000    557.0000    542.0000    552.0000    558.0000    538.0000    561.0000    539.0000    543.0000    554.0000    581.0000    570.0000    608.0000    580.0000    581.0000    576.0000    561.0000    559.0000    574.0000    561.0000    567.0000    569.0000    601.0000    559.0000    474.0000    431.0000    393.0000    391.0000    379.0000    357.0000    371.0000    384.0000    422.0000    438.0000    422.0000    373.0000    393.0000    338.0000    318.0000    276.0000    246.0000    214.0000    203.0000    195.0000    191.0200    191.0100    194.0000    193.0000    189.0000    187.0000    187.0000    188.0000    190.0000    189.0000    238.0000    328.0000    299.0000    305.0000    346.0000    363.0000    365.0000    264.0000    229.0000    221.0000    191.0000    187.0000    179.0000    179.0000    195.0000    228.0000    275.0000    337.0000    408.0000    423.0000    419.0000    411.0000    408.0000    404.0000    398.0000    388.0000    397.0000    400.0000    360.0300    375.0000    360.0100    403.0000    379.0000    407.0000    416.0000    407.0000    396.0000    383.0000    384.0000    382.0000    382.0000    375.0000    345.0000    274.0000    260.1700    304.0000    335.0000    326.0000    346.0000    387.0000    391.0000    427.0000    483.0000    501.0000    509.0000    568.0000    656.0000    694.0000    699.0000    661.0000    669.0000    655.0000    646.0000    590.0000    562.0000    601.0000    681.0000    724.0000    753.0000    706.0000    696.0000    723.0000    728.0000    672.0000    638.0000    646.0000    602.0000    611.0000    533.0000    455.0000    447.0000    415.0200    415.0100    455.0000    475.0000
257.0000    262.0000    243.0000    269.0000    256.0000    303.0000    348.0000    343.0000    322.0000    335.0000    384.0000    362.0000    440.0000    430.0000    445.0000    475.0000    582.0000    646.0000    628.0000    662.0000    725.0000    777.0000    808.0000    851.0000    955.0000   1050.0000    966.0000    908.0000    843.0000    799.0000    696.0000    583.0000    569.0000    560.0000    539.0000    538.0300    538.0300    577.0000    571.0000    555.0000    527.0000    560.0000    548.0000    519.0000    538.0000    544.0000    548.0000    581.0000    570.0000    558.0000    573.0000    577.0000    613.0000    603.0000    600.0000    600.0000    559.0000    553.0000    525.0000    510.0000    502.0000    463.0000    399.0000    393.0100    425.0000    480.0000    443.0000    392.0000    382.0000    371.0100    405.0000    435.0000    429.0000    389.0000    340.0000    290.0000    270.0000    233.0000    214.0000    203.0100    209.0000    208.0000    203.0000    193.0000    198.0000    196.0000    200.0000    194.0000    190.0000    200.0000    191.0000    222.0000    285.0000    366.0000    363.0000    368.0000    407.0000    407.0000    292.0000    257.0000    227.0000    203.0000    191.0000    186.0000    179.0100    179.0100    221.0000    264.0000    301.0000    372.0000    420.0000    420.0000    456.0000    435.0000    405.0000    371.0000    365.0200    365.0100    365.0000    360.0400    360.0300    360.0200    360.0100    360.0000    350.0400    379.0000    367.0000    370.0000    407.0000    359.0100    359.0000    358.0000    365.0000    347.0000    327.0000    260.1800    260.1800    260.1800    269.0000    310.0000    319.0000    396.0000    421.0000    467.0000    452.0000    452.0000    482.0000    556.0000    609.0000    687.0000    643.0000    607.0000    622.0000    671.0000    640.0000    646.0000    639.0000    630.0000    610.0000    637.0000    729.0000    784.0000    735.0000    739.0000    765.0000    678.0000    703.0000    667.0000    610.0000    539.0000    506.0000    507.0000    439.0000    415.0200    434.0000    492.0000    523.0000
272.0000    254.0000    260.0000    272.0000    267.0000    318.0000    373.0000    376.0000    329.0000    346.0000    402.0000    364.0000    384.0000    425.0000    481.0000    564.0000    681.0000    698.0000    660.0000    671.0000    700.0000    764.0000    838.0000    886.0000    971.0000   1016.0000    894.0000    836.0000    793.0000    767.0000    699.0000    580.0000    576.0000    582.0000    570.0000    538.0200    542.0000    563.0000    557.0000    544.0000    525.0000    533.0000    548.0000    521.0000    517.0200    557.0000    562.0000    571.0000    552.0000    551.0000    552.0000    574.0000    627.0000    642.0000    636.0000    639.0000    536.0000    535.0000    493.0000    461.0200    461.0100    461.0000    430.0000    422.0000    458.0000    524.0000    459.0000    442.0000    423.0000    410.0000    424.0000    431.0000    392.0000    338.0000    275.0000    234.0000    231.0000    216.0000    212.0000    238.0000    228.0000    209.0000    202.0000    197.0000    210.0000    209.0000    232.0000    229.0000    228.0000    222.0000    201.0000    228.0000    290.0000    374.0000    419.0000    441.0000    418.0000    418.0000    307.0000    243.0000    207.0000    193.0000    186.0000    186.0000    179.0200    213.0000    272.0000    295.0000    350.0000    425.0000    421.0000    405.0100    420.0000    397.0000    390.0000    377.0000    374.0000    380.0000    403.0000    394.0000    360.0300    360.0200    360.0100    370.0000    350.0400    350.0300    371.0000    388.0000    370.0000    366.0000    360.0000    337.0000    332.0000    306.0000    275.0000    263.0000    271.0000    260.1900    286.0000    283.0000    346.0000    400.0000    366.0000    395.0000    445.0000    510.0000    511.0000    508.0000    530.0000    608.0000    537.0000    543.0000    597.0000    640.0000    567.0000    624.0000    595.0000    608.0000    638.0000    670.0000    737.0000    813.0000    807.0000    779.0000    793.0000    730.0000    729.0000    708.0000    610.0000    544.0000    538.0000    493.0000    420.0000    437.0000    450.0000    484.0000    569.0000
268.0000    271.0000    301.0000    305.0000    294.0000    313.0000    378.0000    400.0000    337.0000    381.0000    432.0000    414.0000    443.0000    472.0000    542.0000    626.0000    647.0000    707.0000    727.0000    756.0000    766.0000    825.0000    874.0000    932.0000    998.0000    934.0000    841.0000    775.0000    759.0000    747.0000    721.0000    598.0000    556.0000    563.0000    558.0000    538.0200    538.0100    543.0000    550.0000    549.0000    521.0000    536.0000    553.0000    517.0100    517.0200    517.0300    528.0000    537.0000    538.0000    555.0000    554.0000    575.0000    597.0000    621.0000    648.0000    593.0000    514.0000    479.0000    461.0300    485.0000    557.0000    570.0000    496.0000    444.0000    529.0000    536.0000    496.0000    469.0000    472.0000    433.0000    443.0000    474.0000    380.0000    293.0000    245.0000    230.0000    223.0000    234.0000    255.0000    273.0000    229.0000    224.0000    209.0000    207.0000    223.0000    251.0000    228.0000    226.0100    226.0000    269.0000    237.0000    241.0000    306.0000    384.0000    424.0000    444.0000    431.0000    383.0000    251.0000    228.0000    205.0000    185.0000    180.0000    179.0300    213.0000    226.0000    276.0000    328.0000    377.0000    445.0000    410.0000    419.0000    405.0000    402.0000    391.0000    393.0000    375.0000    394.0000    421.0000    389.0000    379.0000    360.0200    367.0000    389.0000    378.0000    376.0000    350.0200    357.0000    350.0000    341.0000    338.0000    344.0000    360.0000    336.0000    302.0000    323.0000    281.0000    260.2000    296.0000    325.0000    337.0000    338.0000    420.0000    468.0000    475.0000    503.0000    453.0000    464.0000    491.0000    515.0000    522.0000    475.0000    518.0000    537.0000    519.0000    539.0000    574.0000    662.0000    668.0000    701.0000    771.0000    871.0000    831.0000    836.0000    837.0000    793.0000    714.0000    650.0000    586.0000    555.0000    579.0000    489.0000    447.0000    508.0000    480.0000    485.0000    571.0000
240.0000    283.0000    313.0000    317.0000    332.0000    338.0000    345.0000    398.0000    393.0000    387.0000    470.0000    454.0000    479.0000    448.0000    498.0000    572.0000    649.0000    715.0000    731.0000    827.0000    857.0000    831.0000    889.0000    957.0000    959.0000    908.0000    801.0000    765.0000    719.0000    695.0000    704.0000    638.0000    582.0000    538.0400    538.0300    554.0000    553.0000    538.0000    544.0000    549.0000    514.0100    540.0000    517.0000    529.0000    520.0000    518.0000    543.0000    560.0000    566.0000    597.0000    566.0000    578.0000    610.0000    609.0000    589.0000    582.0000    539.0000    510.0000    523.0000    539.0000    598.0000    602.0000    507.0000    487.0000    554.0000    511.0000    538.0000    504.0000    443.0000    436.0000    458.0000    444.0000    351.0000    285.0000    264.0000    293.0000    295.0000    290.0000    295.0000    318.0000    250.0000    233.0000    211.0000    232.0000    255.0000    273.0000    262.0000    274.0000    237.0000    273.0000    292.0000    304.0000    325.0000    424.0000    456.0000    471.0000    385.0000    302.0000    222.0000    190.0000    184.0000    183.0000    183.0000    183.0000    202.0000    249.0000    296.0000    329.0000    402.0000    438.0000    452.0000    422.0000    432.0000    401.0000    393.0000    382.0000    375.0100    404.0000    425.0000    389.0000    360.0300    363.0000    375.0000    389.0000    396.0000    370.0000    363.0000    350.0100    361.0000    377.0000    367.0000    393.0000    393.0000    364.0000    326.0000    339.0000    294.0000    287.0000    276.0000    289.0000    353.0000    395.0000    445.0000    463.0000    453.0000    464.0000    415.0000    419.0000    464.0000    456.0000    474.0000    450.0100    456.0000    500.0000    515.0000    548.0000    611.0000    690.0000    699.0000    718.0000    774.0000    918.0000    859.0000    898.0000    862.0000    815.0000    700.0000    601.0000    560.0000    591.0000    552.0000    493.0000    447.0100    479.0000    543.0000    551.0000    617.0000
253.0000    252.0000    267.0000    283.0000    278.0000    303.0000    346.0000    400.0000    408.0000    426.0000    433.0000    488.0000    515.0000    530.0000    587.0000    582.0000    669.0000    750.0000    806.0000    842.0000    929.0000    984.0000    968.0000    899.0000    875.0000    803.0000    784.0000    758.0000    723.0000    688.0000    632.0000    615.0000    584.0000    583.0000    570.0000    555.0000    510.1300    539.0000    541.0000    526.0000    545.0000    514.0000    523.0000    534.0000    548.0000    546.0000    525.0000    539.0000    547.0000    581.0000    579.0000    610.0000    619.0000    653.0000    651.0000    652.0000    614.0000    538.0000    579.0000    599.0000    618.0000    567.0000    510.0000    548.0000    586.0000    592.0000    560.0000    537.0000    519.0000    474.0000    446.0000    408.0000    376.0000    324.0000    307.0000    371.0000    387.0000    392.0000    389.0000    344.0000    300.0000    245.0000    224.0000    228.0000    259.0000    259.0000    295.0000    345.0000    282.0000    339.0000    381.0000    409.0000    408.0000    462.0000    448.0000    374.0000    311.0000    267.0000    228.0000    191.0000    188.0000    183.0100    194.0000    207.0000    220.0000    252.0000    275.0000    314.0000    382.0000    450.0000    454.0000    451.0000    462.0000    441.0000    393.0000    386.0000    375.0200    393.0000    403.0000    373.0000    376.0000    371.0000    386.0000    393.0000    429.0000    430.0000    384.0000    386.0000    425.0000    441.0000    416.0000    431.0000    429.0000    397.0000    387.0000    317.0000    311.0000    298.0000    278.0000    276.0100    356.0000    404.0000    443.0000    411.0000    398.0000    401.0000    396.0100    396.0200    401.0000    420.0000    450.0000    491.0000    502.0000    562.0000    619.0000    623.0000    695.0000    747.0000    791.0000    796.0000    841.0000    962.0000    935.0000    848.0000    759.0000    698.0000    670.0000    602.0000    581.0000    556.0000    530.0000    481.0000    447.0200    473.0000    530.0000    604.0000    686.0000
256.0000    277.0000    262.0000    263.0000    270.0000    316.0000    350.0000    385.0000    380.0000    374.0100    430.0000    467.0000    535.0000    594.0000    596.0000    646.0000    693.0000    717.0000    779.0000    815.0000    919.0000    971.0000    915.0000    845.0000    803.0000    781.0000    758.0000    741.0000    724.0000    674.0000    620.0000    588.0000    595.0000    564.0000    540.0000    547.0000    542.0000    510.1200    510.1100    529.0000    528.0000    510.1000    510.1000    510.1000    567.0000    571.0000    544.0000    554.0000    560.0000    605.0000    595.0000    634.0000    636.0000    626.0000    640.0000    631.0000    601.0000    555.0000    571.0000    583.0000    621.0000    582.0000    536.0000    521.0000    569.0000    583.0000    582.0000    572.0000    519.0000    474.0000    364.0000    357.0100    357.0000    389.0000    363.0000    441.0000    414.0000    407.0000    423.0000    376.0000    312.0000    253.0000    244.0000    235.0000    281.0000    296.0000    315.0000    361.0000    359.0000    380.0000    448.0000    440.0000    449.0000    473.0000    490.0000    421.0000    321.0000    294.0000    244.0000    220.0000    190.0000    187.0000    224.0000    229.0000    271.0000    271.0000    322.0000    365.0000    414.0000    470.0000    482.0000    467.0000    460.0000    473.0000    420.0000    379.0000    390.0000    398.0000    421.0000    378.0000    371.0100    406.0000    432.0000    413.0000    464.0000    416.0000    384.0100    429.0000    472.0000    485.0000    454.0000    493.0000    455.0000    458.0000    379.0000    382.0000    378.0000    358.0000    293.0000    285.0000    358.0000    358.0000    371.0000    375.0000    358.0100    396.0000    405.0000    436.0000    425.0000    468.0000    494.0000    512.0000    565.0000    617.0000    664.0000    690.0000    722.0000    795.0000    853.0000    888.0000    921.0000    954.0000    885.0000    801.0000    709.0000    652.0000    606.0000    611.0000    619.0000    573.0000    539.0000    454.0000    457.0000    512.0000    584.0000    625.0000    644.0000
243.0000    251.0000    287.0000    295.0000    301.0000    332.0000    335.0000    334.0000    374.0000    393.0000    428.0000    451.0000    503.0000    573.0000    627.0000    674.0000    773.0000    789.0000    800.0000    828.0000    892.0000    886.0000    846.0000    820.0000    810.0000    792.0000    782.0000    686.0000    662.0000    652.0000    609.0000    583.0000    568.0000    583.0000    534.0000    535.0000    541.0000    523.0000    512.0000    510.1000    510.0900    510.0900    510.0900    512.0000    534.0000    569.0000    552.0000    590.0000    586.0000    611.0000    622.0000    612.0000    651.0000    643.0000    650.0000    673.0000    654.0000    600.0000    608.0000    602.0000    639.0000    604.0000    537.0000    538.0000    584.0000    545.0000    508.0000    474.0000    434.0000    420.0000    369.0000    428.0000    446.0000    414.0000    374.0000    454.0000    448.0000    455.0000    452.0000    417.0000    376.0000    325.0000    309.0000    235.0100    245.0000    264.0000    271.0000    305.0000    458.0000    441.0000    444.0000    461.0000    455.0000    468.0000    534.0000    437.0000    374.0000    330.0000    238.0000    222.0000    190.0000    191.0000    236.0000    262.0000    314.0000    326.0000    348.0000    396.0000    476.0000    483.0000    477.0000    464.0000    457.0000    452.0000    385.0000    383.0000    389.0000    421.0000    422.0000    380.0000    371.0200    423.0000    451.0000    471.0000    520.0000    466.0000    437.0000    484.0000    517.0000    522.0000    508.0000    534.0000    509.0000    479.0000    435.0000    402.0000    373.0000    366.0000    331.0000    298.0000    291.0000    309.0000    317.0000    358.0000    383.0000    437.0000    455.0000    492.0000    487.0000    484.0000    519.0000    537.0000    577.0000    624.0000    652.0000    734.0000    785.0000    830.0000    890.0000    932.0000    988.0000    889.0000    806.0000    761.0000    703.0000    636.0000    582.0000    570.0000    630.0000    601.0000    540.0000    454.0100    468.0000    524.0000    604.0000    661.0000    642.0000
261.0000    260.0000    257.0000    266.0000    289.0000    302.0000    309.0000    325.0000    389.0000    440.0000    507.0000    510.0000    483.0000    511.0000    623.0000    690.0000    772.0000    849.0000    854.0000    864.0000    950.0000    873.0000    831.0000    804.0000    797.0000    770.0000    761.0000    727.0000    659.0000    619.0000    637.0000    627.0000    582.0000    556.0000    555.0000    525.0000    523.0100    542.0000    534.0000    515.0000    517.0000    510.0800    510.0800    523.0000    537.0000    565.0000    552.0100    582.0000    582.0100    611.0000    624.0000    641.0000    659.0000    693.0000    667.0000    694.0000    706.0000    657.0000    667.0000    600.0000    581.0000    588.0000    557.0000    565.0000    592.0000    531.0000    462.0000    440.0000    439.0000    426.0000    385.0000    438.0000    494.0000    443.0000    443.0000    453.0000    486.0000    507.0000    476.0000    437.0000    414.0000    374.0000    294.0000    253.0000    271.0000    262.0000    299.0000    337.0000    435.0000    450.0000    475.0000    507.0000    472.0000    488.0000    525.0000    469.0000    360.0000    264.0000    219.0000    190.0100    190.0100    198.0000    239.0000    288.0000    322.0000    362.0000    406.0000    466.0000    500.0000    468.0000    454.0000    446.0000    434.0000    408.0000    393.0000    397.0000    383.0100    387.0000    417.0000    404.0000    404.0000    428.0000    454.0000    497.0000    518.0000    479.0000    495.0000    497.0000    497.0000    478.0000    473.0000    458.0000    442.0000    429.0000    346.0100    346.0000    324.0000    298.0200    298.0100    302.0000    347.0000    379.0000    408.0000    379.0000    421.0000    471.0000    477.0000    473.0000    473.0100    487.0000    544.0000    553.0000    588.0000    635.0000    671.0000    729.0000    776.0000    811.0000    875.0000    955.0000    966.0000    888.0000    793.0000    730.0000    660.0000    621.0000    607.0000    558.0000    555.0000    560.0000    516.0000    454.0200    488.0000    552.0000    668.0000    674.0000    582.0000
309.0000    311.0000    274.0000    292.0000    322.0000    374.0000    354.0000    341.0000    401.0000    459.0000    502.0000    534.0000    565.0000    589.0000    567.0000    671.0000    820.0000    886.0000    902.0000    921.0000    955.0000    836.0000    782.0000    760.0000    735.0000    735.0000    742.0000    689.0000    640.0000    657.0000    609.0000    586.0000    577.0000    536.0000    530.0000    527.0000    537.0000    540.0000    525.0000    533.0000    532.0000    510.0700    510.0700    513.0000    547.0000    563.0000    586.0000    595.0000    606.0000    614.0000    642.0000    697.0000    722.0000    745.0000    737.0000    709.0000    724.0000    708.0000    636.0000    549.0000    565.0000    595.0000    562.0000    553.0000    521.0000    480.0000    471.0000    500.0000    482.0000    473.0000    412.0000    451.0000    502.0000    491.0000    499.0000    502.0000    530.0000    555.0000    506.0000    440.0000    382.0000    332.0000    290.0000    294.0000    285.0000    303.0000    296.0000    328.0000    423.0000    469.0000    527.0000    534.0000    526.0000    529.0000    517.0000    424.0000    308.0000    232.0000    190.0200    190.0200    192.0000    237.0000    254.0000    286.0000    331.0000    397.0000    444.0000    517.0000    510.0000    470.0000    452.0000    435.0000    423.0000    447.0000    437.0000    434.0000    411.0000    383.0200    393.0000    425.0000    424.0000    427.0000    454.0000    482.0000    513.0000    514.0000    517.0000    517.0000    527.0000    513.0000    511.0000    516.0000    471.0000    387.0000    457.0000    387.0000    318.0000    347.0000    381.0000    368.0000    365.0000    384.0000    416.0000    400.0000    417.0000    442.0000    442.0100    474.0000    498.0000    511.0000    547.0000    612.0000    626.0000    661.0000    698.0000    707.0000    764.0000    837.0000    919.0000    985.0000    916.0000    818.0000    757.0000    703.0000    656.0000    595.0000    560.0000    547.0000    494.0000    535.0000    464.0000    475.0000    511.0000    552.0000    643.0000    619.0000    533.0000
358.0000    347.0000    355.0000    330.0000    369.0000    444.0000    432.0000    410.0000    399.0000    420.0000    476.0000    510.0000    564.0000    612.0000    649.0000    716.0000    835.0000    847.0000    861.0000    892.0000    925.0000    835.0000    795.0000    761.0000    722.0000    676.0000    713.0000    662.0000    649.0000    652.0000    637.0000    627.0000    603.0000    571.0000    559.0000    522.0100    527.0000    531.0000    524.0000    511.0000    515.0000    510.0600    510.0600    529.0000    536.0000    538.0000    626.0000    656.0000    651.0000    644.0000    704.0000    748.0000    757.0000    784.0000    765.0000    705.0000    704.0000    691.0000    563.0000    520.0000    560.0000    551.0000    547.0000    522.0000    555.0000    544.0000    563.0000    531.0000    495.0000    505.0000    439.0000    465.0000    510.0000    528.0000    550.0000    551.0000    568.0000    573.0000    525.0000    466.0000    435.0000    335.0000    295.0000    325.0000    296.0000    328.0000    343.0000    366.0000    453.0000    479.0000    533.0000    507.0000    516.0000    502.0000    466.0000    413.0000    313.0000    247.0000    190.0300    190.0300    194.0000    218.0000    255.0000    286.0000    376.0000    441.0000    503.0000    535.0000    521.0000    485.0000    475.0000    495.0000    478.0000    461.0000    455.0000    475.0000    461.0000    429.0000    392.0000    424.0000    467.0000    518.0000    528.0000    538.0000    569.0000    539.0000    539.0000    534.0000    549.0000    547.0000    549.0000    493.0000    408.0000    464.0000    482.0000    393.0000    388.0000    391.0000    364.0000    395.0000    380.0000    388.0000    414.0000    451.0000    475.0000    449.0000    484.0000    507.0000    520.0000    521.0000    574.0000    670.0000    715.0000    729.0000    739.0000    748.0000    771.0000    829.0000    935.0000    952.0000    872.0000    790.0000    717.0000    674.0000    630.0000    585.0000    618.0000    559.0000    504.0000    464.0100    464.0100    518.0000    557.0000    595.0000    651.0000    588.0000    541.0000
331.0000    409.0000    441.0000    450.0000    478.0000    469.0000    497.0000    496.0000    439.0000    485.0000    541.0000    593.0000    634.0000    676.0000    750.0000    815.0000    878.0000    777.0000    784.0000    780.0000    787.0000    782.0000    771.0000    749.0000    749.0000    721.0000    632.0000    607.0000    589.0000    610.0000    623.0000    621.0000    604.0000    571.0000    540.0000    555.0000    522.0000    510.0700    510.0600    510.0500    510.0500    510.0500    510.0500    534.0000    565.0000    563.0000    603.0000    672.0000    684.0000    694.0000    712.0000    738.0000    795.0000    788.0000    765.0000    703.0000    608.0000    604.0000    503.0000    522.0000    510.0000    483.0000    509.0000    518.0000    578.0000    594.0000    644.0000    579.0000    541.0000    552.0000    525.0000    517.0000    536.0000    538.0000    564.0000    597.0000    597.0000    578.0000    504.0000    484.0000    422.0000    356.0000    318.0000    370.0000    386.0000    380.0000    457.0000    493.0000    504.0000    552.0000    537.0000    482.0000    443.0000    432.0000    437.0000    290.0000    238.0000    211.0000    190.0400    190.0400    190.0400    219.0000    241.0000    267.0000    311.0000    367.0000    396.0000    451.0000    513.0000    541.0000    523.0000    509.0000    528.0000    494.0000    495.0000    468.0000    426.0000    395.0000    433.0000    504.0000    539.0000    582.0000    608.0000    630.0000    576.0000    533.0000    595.0000    545.0000    529.0000    496.0000    474.0000    459.0000    447.0000    479.0000    482.0000    459.0000    440.0000    390.0000    384.0000    421.0000    435.0000    442.0000    456.0000    498.0000    528.0000    450.0000    474.0000    479.0000    530.0000    538.0000    598.0000    647.0000    688.0000    735.0000    743.0000    759.0000    762.0000    823.0000    900.0000    954.0000    875.0000    747.0000    710.0000    631.0000    592.0000    571.0000    568.0000    524.0000    501.0000    487.0000    490.0000    563.0000    611.0000    692.0000    645.0000    592.0000    522.0000
335.0000    403.0000    462.0000    498.0000    551.0000    565.0000    569.0000    532.0000    468.0000    511.0000    587.0000    621.0000    649.0000    727.0000    813.0000    856.0000    829.0000    761.0000    719.0000    725.0000    730.0000    775.0000    738.0000    725.0000    734.0000    689.0000    605.0000    589.0100    595.0000    584.0000    576.0000    567.0000    568.0000    558.0000    578.0000    554.0000    515.0000    510.0700    510.0600    510.0500    510.0400    510.0400    510.0400    515.0000    555.0000    591.0000    617.0000    658.0000    679.0000    711.0000    740.0000    767.0000    752.0000    727.0000    698.0000    657.0000    574.0000    510.0000    473.0700    480.0000    473.0700    514.0000    559.0000    535.0000    527.0000    579.0000    644.0000    588.0000    566.0000    542.0000    541.0000    540.0000    536.0000    528.0000    534.0000    586.0000    548.0000    537.0000    490.0000    433.0000    383.0000    353.0000    386.0000    418.0000    420.0000    400.0000    388.0000    378.0000    445.0000    448.0000    429.0000    458.0000    460.0000    410.0000    389.0000    248.0000    232.0000    216.0000    190.0500    190.0500    196.0000    207.0000    229.0000    252.0000    296.0000    328.0000    369.0000    499.0000    545.0000    577.0000    552.0000    537.0000    551.0000    539.0000    464.0000    423.0100    423.0000    417.0000    465.0000    559.0000    594.0000    612.0000    600.0000    572.0000    530.0000    507.0000    525.0000    476.0000    458.0000    469.0000    455.0000    447.0100    460.0000    477.0000    468.0000    464.0000    423.0000    420.0000    426.0000    415.0000    470.0000    496.0000    504.0000    516.0000    532.0000    468.0000    501.0000    490.0000    523.0000    546.0000    581.0000    639.0000    672.0000    721.0000    747.0000    751.0000    780.0000    834.0000    902.0000    931.0000    878.0000    743.0000    687.0000    598.0000    576.0000    568.0000    558.0000    528.0000    513.0000    487.0100    505.0000    572.0000    649.0000    617.0000    558.0000    526.0000    510.0000
339.0000    378.0000    407.0000    438.0000    514.0000    583.0000    626.0000    564.0000    543.0000    590.0000    633.0000    685.0000    718.0000    764.0000    814.0000    868.0000    767.0000    726.0000    698.0000    678.0000    684.0000    728.0000    719.0000    696.0000    663.0000    619.0000    612.0000    622.0000    633.0000    641.0000    605.0000    587.0000    554.0000    553.0000    552.0000    545.0000    514.0000    531.0000    539.0000    521.0000    525.0000    510.0300    510.0300    521.0000    542.0000    584.0000    636.0000    618.0000    630.0000    636.0000    699.0000    749.0000    747.0000    697.0000    677.0000    634.0000    595.0000    521.0000    473.0600    473.0600    510.0000    542.0000    544.0000    524.0000    512.0000    579.0000    567.0000    605.0000    586.0000    543.0000    532.0000    501.0000    513.0000    478.0000    527.0000    535.0000    540.0000    501.0000    509.0000    476.0000    425.0000    414.0000    462.0000    413.0000    388.0000    358.0000    340.0000    310.0000    322.0000    314.0000    316.0000    352.0000    397.0000    410.0000    395.0000    330.0000    279.0000    233.0000    190.0600    190.0600    190.0600    205.0000    215.0000    240.0000    300.0000    395.0000    469.0000    536.0000    561.0000    588.0000    596.0000    591.0000    573.0000    526.0000    440.0000    432.0000    473.0000    457.0000    491.0000    530.0000    579.0000    586.0000    543.0000    522.0000    503.0000    476.0000    480.0000    478.0000    447.0400    452.0000    447.0200    447.0200    447.0200    459.0000    447.0400    469.0000    465.0000    480.0000    482.0000    459.0000    491.0000    552.0000    578.0000    562.0000    538.0000    507.0000    515.0000    496.0000    509.0000    561.0000    610.0000    669.0000    702.0000    741.0000    758.0000    764.0000    764.0000    822.0000    838.0000    839.0000    878.0000    736.0000    667.0000    607.0000    571.0000    607.0000    612.0000    548.0000    487.0200    489.0000    552.0000    601.0000    668.0000    620.0000    533.0000    501.0000    472.0000
307.0000    326.0000    365.0000    404.0000    469.0000    582.0000    616.0000    648.0000    615.0000    634.0000    637.0000    671.0000    715.0000    771.0000    808.0000    812.0000    737.0000    700.0000    696.0000    678.0000    673.0000    703.0000    679.0000    649.0000    628.0000    647.0000    688.0000    697.0000    686.0000    661.0000    607.0000    583.0000    603.0000    594.0000    550.0000    543.0000    558.0000    557.0000    538.0000    533.0000    533.0000    546.0000    510.0200    510.0200    552.0000    611.0000    626.0000    573.0000    586.0000    636.0000    695.0000    704.0000    686.0000    688.0000    631.0000    572.0000    531.0000    473.0500    473.0500    545.0000    576.0000    523.0000    522.0000    472.0000    491.0000    530.0000    500.0000    587.0000    568.0000    540.0000    519.0000    527.0000    500.0000    451.0100    469.0000    474.0000    491.0000    479.0000    471.0000    474.0000    474.0000    487.0000    492.0000    465.0000    425.0000    416.0000    398.0000    349.0000    277.0000    266.0000    261.0000    294.0000    303.0000    323.0000    348.0000    363.0000    257.0000    217.0000    190.0700    190.0700    193.0000    217.0000    251.0000    246.0000    317.0000    405.0000    479.0000    534.0000    579.0000    625.0000    615.0000    551.0000    489.0000    473.0000    445.0000    463.0000    500.0000    474.0000    511.0000    556.0000    565.0000    564.0000    531.0000    492.0000    469.0000    458.0000    451.0100    451.0000    447.0400    447.0300    447.0300    447.0300    447.0300    447.0300    458.0000    458.0000    471.0000    500.0000    550.0000    530.0000    562.0000    597.0000    612.0000    551.0000    552.0000    517.0000    527.0000    553.0000    518.0000    551.0000    634.0000    700.0000    749.0000    785.0000    778.0000    775.0000    746.0000    746.0000    778.0000    816.0000    870.0000    730.0000    670.0000    622.0000    614.0000    624.0000    558.0000    505.0000    487.0300    519.0000    602.0000    670.0000    688.0000    597.0000    524.0000    475.0000    470.0000
294.0000    322.0000    384.0000    430.0000    495.0000    542.0000    602.0000    656.0000    676.0000    659.0000    643.0000    664.0000    703.0000    733.0000    804.0000    823.0000    717.0000    695.0000    673.0000    661.0000    640.0100    640.0000    630.0000    628.0100    667.0000    692.0000    763.0000    754.0000    683.0000    672.0000    678.0000    662.0000    666.0000    622.0000    590.0000    585.0000    577.0000    561.0000    536.0000    545.0000    543.0000    541.0000    544.0000    510.0100    548.0000    580.0000    582.0000    548.0000    597.0000    642.0000    635.0000    623.0000    637.0000    617.0000    577.0000    526.0000    473.0400    473.0400    524.0000    576.0000    545.0000    471.0000    463.0000    433.0000    434.0000    441.0000    483.0000    534.0000    510.0000    501.0000    452.0000    489.0000    462.0000    452.0000    451.0000    454.0000    459.0000    486.0000    434.0000    436.0000    437.0000    440.0000    462.0000    482.0000    449.0000    485.0000    439.0000    357.0000    310.0000    287.0000    266.0000    246.0000    244.0100    244.0000    250.0000    260.0000    248.0000    223.0000    190.0800    190.0800    223.0000    282.0000    281.0000    274.0000    315.0000    384.0000    467.0000    543.0000    585.0000    602.0000    565.0000    540.0000    532.0000    500.0000    468.0000    496.0000    511.0000    488.0000    509.0000    516.0000    537.0000    538.0000    514.0000    479.0000    468.0000    459.0000    451.0100    451.0000    447.0400    462.0000    453.0000    447.0400    453.0000    447.0400    447.0400    450.0000    473.0000    505.0000    529.0000    559.0000    609.0000    646.0000    652.0000    576.0000    553.0000    517.0100    542.0000    579.0000    583.0000    604.0000    642.0000    689.0000    760.0000    786.0000    789.0000    731.0000    727.0000    743.0000    778.0000    834.0000    877.0000    768.0000    684.0000    618.0000    583.0000    576.0000    505.0100    523.0000    554.0000    599.0000    647.0000    717.0000    714.0000    648.0000    585.0000    524.0000    465.0000
291.0000    306.0000    355.0000    391.0000    405.0000    520.0000    609.0000    691.0000    733.0000    700.0000    697.0000    702.0000    710.0000    732.0000    787.0000    789.0000    702.0000    675.0000    651.0000    640.0200    640.0100    649.0000    628.0200    643.0000    657.0000    696.0000    802.0000    794.0000    788.0000    748.0000    775.0000    684.0000    636.0000    621.0000    615.0000    593.0000    615.0000    599.0000    607.0000    578.0000    565.0000    587.0000    555.0000    510.0000    529.0000    538.0000    540.0000    504.0000    528.0000    522.0000    527.0000    492.0000    478.0000    501.0000    526.0000    481.0000    473.0300    526.0000    554.0000    546.0000    445.0000    424.0000    400.0000    396.0000    377.0000    368.0100    446.0000    452.0000    428.0000    422.0000    398.0000    410.0000    388.0000    423.0000    420.0000    448.0000    462.0000    446.0000    386.0000    393.0000    428.0000    440.0000    474.0000    531.0000    526.0000    523.0000    522.0000    438.0000    445.0000    424.0000    414.0000    363.0000    317.0000    247.0000    235.0000    222.0000    196.0000    190.0900    193.0000    205.0000    254.0000    286.0000    298.0000    342.0000    396.0000    442.0000    522.0000    552.0000    564.0000    589.0000    592.0000    577.0000    570.0000    541.0000    486.0000    493.0000    499.0000    508.0000    513.0000    546.0000    546.0000    512.0000    487.0000    467.0100    467.0000    468.0000    465.0000    465.0000    466.0000    448.0000    452.0000    479.0000    469.0000    460.0000    447.0500    447.0500    472.0000    519.0000    544.0000    582.0000    628.0000    591.0000    586.0000    599.0000    569.0000    541.0000    560.0000    589.0000    602.0000    610.0000    684.0000    693.0000    753.0000    741.0000    728.0100    755.0000    763.0000    726.0000    708.0000    721.0000    771.0000    695.0000    637.0000    595.0000    586.0000    602.0000    590.0000    604.0000    637.0000    665.0000    724.0000    644.0000    601.0000    595.0000    529.0000    483.0000    523.0000
317.0000    333.0000    339.0000    375.0000    439.0000    571.0000    634.0000    727.0000    753.0000    752.0000    743.0000    718.0000    696.0000    718.0000    767.0000    772.0000    681.0000    649.0000    644.0000    689.0000    715.0000    684.0000    663.0000    690.0000    666.0000    721.0000    795.0000    822.0000    807.0000    788.0000    749.0000    695.0000    649.0000    639.0000    644.0000    644.0000    636.0000    647.0000    636.0000    608.0000    578.0000    575.0000    545.0000    508.0000    500.0100    500.0000    513.0000    494.0100    494.0000    482.0000    473.0800    473.0700    473.0600    501.0000    473.0400    473.0300    473.0200    479.0000    486.0000    463.0000    408.0000    406.0000    445.0000    463.0000    443.0000    373.0000    368.0000    431.0000    389.0000    391.0000    366.0000    387.0000    381.0000    404.0000    370.0000    438.0000    414.0000    408.0000    308.0000    381.0000    471.0000    475.0000    486.0000    488.0000    478.0000    481.0000    458.0000    502.0000    473.0000    460.0000    458.0000    424.0000    400.0000    332.0000    290.0000    246.0000    200.0000    197.0000    219.0000    231.0000    205.0100    212.0000    260.0000    325.0000    417.0000    461.0000    474.0000    505.0000    546.0000    571.0000    572.0000    601.0000    620.0000    596.0000    514.0000    517.0000    524.0000    539.0000    552.0000    552.0000    536.0000    496.0000    468.0000    478.0000    491.0000    503.0000    475.0000    477.0000    481.0000    473.0000    474.0000    474.0000    485.0000    455.0000    447.0600    452.0000    479.0000    517.0000    552.0000    604.0000    609.0000    547.0000    544.0000    591.0000    597.0000    564.0000    587.0000    598.0000    631.0000    644.0000    709.0000    711.0000    707.0000    731.0000    728.0000    741.0000    703.0000    658.0000    633.0000    687.0000    744.0000    650.0000    608.0000    634.0000    626.0000    652.0000    662.0000    688.0000    712.0000    726.0000    735.0000    675.0000    610.0000    545.0000    499.0000    554.0000    528.0000
388.0000    371.0000    384.0000    387.0000    415.0000    503.0000    620.0000    691.0000    757.0000    772.0000    722.0000    693.0000    685.0100    685.0000    678.0000    686.0000    658.0000    660.0000    688.0000    754.0000    757.0000    737.0000    706.0000    738.0000    731.0000    777.0000    812.0000    805.0000    788.0000    780.0000    783.0000    723.0000    720.0000    688.0000    657.0000    641.0000    643.0000    655.0000    640.0000    625.0000    607.0000    550.0000    567.0000    518.0000    500.0100    509.0000    494.0200    494.0100    552.0000    551.0000    553.0000    547.0000    501.0000    473.0500    473.0400    473.0300    476.0000    473.0100    473.0000    440.0000    451.0000    443.0000    464.0000    488.0000    451.0000    449.0000    390.0000    342.0000    374.0000    379.0000    364.0000    397.0000    378.0000    324.0000    329.0000    356.0000    324.0000    293.0000    271.0000    378.0000    399.0000    437.0000    402.0000    410.0000    380.0000    384.0000    361.0000    418.0000    436.0000    442.0000    422.0000    399.0000    355.0000    358.0000    278.0000    217.0000    197.0100    197.0100    251.0000    258.0000    249.0000    242.0000    233.0000    249.0000    333.0000    404.0000    448.0000    490.0000    513.0000    570.0000    583.0000    618.0000    653.0000    666.0000    596.0000    560.0000    595.0000    601.0000    583.0000    564.0000    528.0000    507.0000    488.0000    502.0000    519.0000    511.0000    475.0100    483.0000    518.0000    495.0000    483.0000    511.0000    515.0000    470.0000    447.0700    469.0000    508.0000    505.0000    552.0000    585.0000    562.0000    531.0000    557.0000    606.0000    605.0000    600.0000    613.0000    604.0000    657.0000    703.0000    685.0000    659.0000    672.0000    668.0000    665.0000    662.0000    641.0000    608.0000    616.0000    685.0000    733.0000    635.0000    671.0000    716.0000    683.0000    684.0000    707.0000    733.0000    758.0000    733.0000    718.0000    631.0000    577.0000    537.0000    578.0000    592.0000    536.0000
429.0000    452.0000    452.0000    435.0000    440.0000    515.0000    604.0000    698.0000    779.0000    778.0000    731.0000    732.0000    721.0000    724.0000    695.0000    658.0100    658.0100    658.0100    704.0000    759.0000    815.0000    748.0000    752.0000    786.0000    807.0000    808.0000    790.0000    794.0000    786.0000    795.0000    746.0000    703.0000    658.0000    630.0000    608.0000    617.0000    620.0000    620.0000    613.0000    576.0000    550.0000    523.0000    571.0000    526.0000    501.0000    522.0000    494.0200    503.0000    517.0000    545.0000    573.0000    574.0000    583.0000    519.0000    474.0000    473.0400    544.0000    521.0000    505.0000    477.0000    455.0000    469.0000    475.0000    473.0000    489.0000    501.0000    444.0000    339.0000    332.0000    327.0000    319.0000    387.0000    344.0000    245.0700    280.0000    250.0000    245.0400    245.0300    256.0000    309.0000    293.0000    281.0000    293.0000    305.0000    311.0000    264.0000    312.0000    324.0000    395.0000    398.0000    341.0000    334.0000    339.0000    329.0000    221.0000    197.0200    199.0000    227.0000    336.0000    333.0000    292.0000    289.0000    308.0000    296.0000    335.0000    396.0000    419.0000    454.0000    454.0000    497.0000    562.0000    574.0000    594.0000    614.0000    658.0000    647.0000    645.0000    628.0000    625.0000    613.0000    586.0000    575.0000    521.0000    536.0000    513.0000    515.0000    483.0000    499.0000    529.0000    545.0000    524.0000    534.0000    487.0000    448.0000    447.0800    462.0000    479.0000    495.0000    552.0000    549.0000    529.0000    521.0000    546.0000    581.0000    640.0000    621.0000    648.0000    658.0000    703.0000    747.0000    666.0000    638.0000    621.0000    616.0000    630.0000    614.0000    596.0000    619.0000    656.0000    707.0000    701.0000    665.0000    718.0000    719.0000    714.0000    706.0000    738.0000    740.0000    730.0000    702.0000    658.0000    648.0000    597.0000    593.0000    619.0000    611.0000    580.0000
400.0000    443.0000    499.0000    494.0000    494.0000    580.0000    632.0000    714.0000    783.0000    799.0000    751.0000    769.0000    765.0000    735.0000    685.0000    663.0000    685.0000    697.0000    739.0000    788.0000    834.0000    802.0000    804.0000    807.0000    797.0000    765.0000    759.0000    788.0000    776.0000    735.0000    666.0000    654.0000    594.0000    577.0000    574.0000    581.0000    591.0000    578.0000    578.0000    564.0000    530.0000    500.0000    550.0000    530.0000    498.0000    494.0300    494.0300    494.0300    519.0000    609.0000    625.0000    618.0000    604.0000    530.0000    473.0500    523.0000    564.0000    515.0000    493.0000    495.0000    500.0000    488.0000    490.0000    473.0100    495.0000    490.0000    460.0000    371.0000    346.0000    314.0000    309.0000    323.0000    247.0000    314.0000    245.0600    245.0500    247.0000    268.0000    245.0200    252.0000    245.0000    232.0300    232.0200    232.0100    232.0000    226.0200    226.0100    268.0000    311.0000    279.0000    285.0000    242.0000    281.0000    319.0000    232.0000    201.0000    247.0000    244.0000    315.0000    377.0000    360.0000    380.0000    416.0000    387.0000    369.0000    371.0000    390.0000    425.0000    428.0000    455.0000    522.0000    558.0000    563.0000    593.0000    653.0000    674.0000    702.0000    668.0000    607.0000    577.0100    577.0000    577.0000    560.0000    517.0000    518.0000    498.0000    483.0100    507.0000    523.0000    561.0000    550.0000    526.0000    494.0000    447.0900    447.0900    453.0000    466.0000    476.0000    503.0000    503.0100    503.0200    546.0000    556.0000    600.0000    602.0000    596.0000    645.0000    654.0000    673.0000    698.0000    668.0000    625.0000    583.0000    598.0000    593.0000    579.0000    579.0100    605.0000    660.0000    722.0000    658.0000    666.0000    671.0000    698.0000    745.0000    748.0000    778.0000    756.0000    697.0000    658.0100    669.0000    679.0000    652.0000    642.0000    648.0000    616.0000    552.0000
422.0000    492.0000    553.0000    597.0000    587.0000    574.0000    709.0000    775.0000    833.0000    816.0000    779.0000    790.0000    732.0000    711.0000    691.0000    726.0000    772.0000    793.0000    826.0000    796.0000    761.0000    758.0000    738.0000    729.0000    747.0000    704.0000    710.0000    761.0000    734.0000    674.0000    629.0000    601.0000    537.0100    537.0000    559.0000    571.0000    583.0000    553.0000    512.0000    527.0000    538.0000    510.0000    499.0000    494.0500    494.0400    494.0400    494.0400    519.0000    558.0000    616.0000    624.0000    612.0000    576.0000    475.0000    518.0000    579.0000    579.0000    594.0000    562.0000    569.0000    541.0000    573.0000    509.0000    536.0000    528.0000    515.0000    467.0000    422.0000    391.0000    322.0000    299.0000    285.0000    287.0000    377.0000    348.0000    336.0000    320.0000    286.0000    264.0000    245.0100    258.0000    274.0000    284.0000    263.0000    252.0000    276.0000    228.0000    226.0000    239.0000    225.0000    215.0000    207.0300    218.0000    267.0000    257.0000    234.0000    201.0100    228.0000    290.0000    387.0000    470.0000    492.0000    506.0000    487.0000    443.0000    401.0000    428.0000    449.0000    465.0000    476.0000    499.0000    550.0000    564.0000    582.0000    602.0000    618.0000    646.0000    701.0000    698.0000    658.0000    609.0000    555.0000    548.0000    538.0000    500.0000    518.0000    494.0000    483.0200    487.0000    485.0000    470.0000    464.0000    456.0000    447.1000    477.0000    459.0000    489.0000    468.0000    521.0000    531.0000    556.0000    574.0000    587.0000    533.0000    567.0000    595.0000    584.0000    566.0000    601.0000    616.0000    643.0000    570.0000    565.0000    579.0000    567.0100    579.0000    579.0100    584.0000    608.0000    642.0000    621.0000    680.0000    726.0000    755.0000    743.0000    756.0000    771.0000    738.0000    753.0000    727.0000    734.0000    761.0000    695.0000    626.0000    608.0000    597.0000    589.0000
440.0000    498.0000    565.0000    593.0000    636.0000    615.0000    758.0000    839.0000    859.0000    833.0000    806.0000    787.0000    761.0000    758.0000    725.0000    749.0000    836.0000    855.0000    827.0000    825.0000    719.0000    720.0000    737.0000    693.0000    651.0000    653.0000    689.0000    738.0000    721.0000    664.0000    620.0000    567.0000    539.0000    541.0000    534.0000    546.0000    553.0000    516.0000    508.0000    519.0000    504.0000    496.0000    503.0000    494.0500    508.0000    514.0000    508.0000    543.0000    597.0000    590.0000    568.0000    549.0000    499.0000    540.0000    595.0000    599.0000    617.0000    601.0000    611.0000    607.0000    577.0000    565.0000    513.0000    557.0000    569.0000    560.0000    478.0000    452.0000    379.0000    368.0000    310.0000    285.0100    322.0000    364.0000    385.0000    369.0000    343.0000    325.0000    288.0000    263.0000    256.0000    343.0000    350.0000    342.0000    324.0000    317.0000    246.0000    222.0000    221.0000    216.0000    221.0000    230.0000    207.0200    224.0000    224.0000    201.0200    206.0000    215.0000    254.0000    278.0000    311.0000    328.0000    370.0000    436.0000    489.0000    432.0000    463.0000    495.0000    518.0000    514.0000    510.0000    539.0000    568.0000    514.0000    516.0000    521.0000    574.0000    598.0000    639.0000    647.0000    614.0000    555.0000    573.0000    551.0000    524.0000    494.0000    483.0300    505.0000    499.0000    525.0000    490.0000    502.0000    480.0000    449.0000    465.0000    493.0000    459.0100    501.0000    554.0000    529.0000    560.0000    550.0000    528.0000    545.0000    579.0000    542.0000    519.0000    547.0000    562.0000    561.0000    566.0000    562.0300    568.0000    573.0000    567.0000    597.0000    620.0000    625.0000    644.0000    597.0000    599.0000    670.0000    687.0000    712.0000    739.0000    757.0000    793.0000    778.0000    769.0000    745.0000    728.0000    707.0000    670.0000    699.0000    676.0000    650.0000    613.0000
499.0000    532.0000    578.0000    595.0000    635.0000    704.0000    743.0000    884.0000    889.0000    841.0000    834.0000    819.0000    828.0000    792.0000    764.0000    810.0000    889.0000    866.0000    845.0000    780.0000    708.0000    682.0000    708.0000    640.0000    586.0000    591.0000    677.0000    698.0000    679.0000    638.0000    612.0000    558.0000    532.0000    512.0000    528.0000    501.0000    522.0000    497.0000    519.0000    510.0000    507.0000    494.0700    494.0600    494.0600    512.0000    541.0000    508.0100    536.0000    569.0000    574.0000    541.0000    509.0000    504.0000    559.0000    616.0000    643.0000    626.0000    610.0000    587.0000    558.0000    565.0000    569.0000    541.0000    526.0000    521.0000    514.0000    471.0000    458.0000    404.0000    368.0000    297.0000    306.0000    330.0000    373.0000    410.0000    393.0000    369.0000    312.0000    283.0000    274.0000    256.0100    324.0000    379.0000    345.0000    354.0000    310.0000    287.0000    221.0100    234.0000    235.0000    252.0000    282.0000    207.0200    207.0100    207.0000    218.0000    225.0000    249.0000    259.0000    294.0000    288.0000    304.0000    304.0100    311.0000    410.0000    474.0000    495.0000    530.0000    543.0000    562.0000    546.0000    567.0000    540.0000    461.0000    469.0000    474.0000    526.0000    536.0000    562.0000    590.0000    597.0000    580.0000    574.0000    540.0000    509.0000    509.0000    485.0000    483.0400    500.0000    520.0000    489.0100    514.0000    479.0000    449.0100    491.0000    500.0000    466.0000    496.0000    499.0000    514.0000    495.0000    512.0000    502.0000    530.0000    544.0000    513.0000    518.0000    544.0000    556.0000    558.0000    581.0000    562.0300    562.0200    562.0100    562.0100    625.0000    636.0000    656.0000    626.0000    594.0000    660.0000    700.0000    723.0000    743.0000    780.0000    769.0000    739.0000    722.0000    722.0000    721.0000    689.0000    743.0000    739.0000    738.0000    711.0000    691.0000    642.0000
455.0000    517.0000    565.0000    627.0000    670.0000    768.0000    847.0000    889.0000    884.0000    910.0000    879.0000    868.0000    857.0000    852.0000    881.0000    902.0000    907.0000    898.0000    831.0000    725.0000    658.0000    619.0000    642.0000    593.0000    591.0000    575.0000    619.0000    625.0000    607.0000    619.0000    604.0000    536.0000    542.0000    504.0000    500.0000    509.0000    500.0000    494.1100    494.1000    494.0900    494.0800    496.0000    494.0700    494.0700    523.0000    544.0000    519.0000    508.0200    519.0000    568.0000    549.0000    520.0000    532.0000    546.0000    568.0000    592.0000    614.0000    568.0000    555.0000    549.0000    546.0000    539.0100    539.0000    563.0000    554.0000    458.0000    427.0000    410.0000    377.0000    385.0000    352.0000    334.0000    366.0000    416.0000    416.0000    356.0000    351.0000    315.0000    322.0000    329.0000    298.0000    353.0000    375.0000    335.0000    273.0000    229.0100    229.0000    248.0000    310.0000    316.0000    246.0000    326.0000    269.0000    246.0000    235.0000    233.0000    230.0000    244.0000    297.0000    337.0000    393.0000    379.0000    396.0000    399.0000    385.0000    385.0100    424.0000    530.0000    573.0000    568.0000    552.0000    539.0000    476.0000    419.0000    435.0000    423.0000    427.0000    462.0000    563.0000    612.0000    622.0000    634.0000    588.0000    538.0000    509.0000    485.0100    498.0000    517.0000    519.0000    518.0000    512.0000    489.0000    461.0000    451.0000    495.0000    493.0000    496.0000    466.0100    471.0000    477.0000    477.0100    477.0200    497.0000    511.0000    502.0000    503.0000    508.0000    531.0000    581.0000    578.0000    573.0000    562.0300    562.0200    562.0100    562.0000    565.0000    594.0000    601.0000    560.0000    595.0000    594.0100    643.0000    686.0000    732.0000    757.0000    755.0000    721.0000    697.0000    710.0000    685.0000    681.0000    723.0000    750.0000    777.0000    734.0000    726.0000    685.0000
440.0000    519.0000    581.0000    673.0000    711.0000    840.0000    849.0000    858.0000    808.0000    843.0000    799.0000    792.0000    792.0000    863.0000    914.0000    904.0000    873.0000    898.0000    850.0000    781.0000    697.0000    586.0200    586.0100    591.0000    586.0000    560.0000    586.0000    551.0000    561.0000    580.0000    538.0000    518.0000    502.0000    501.0000    494.1400    494.1300    494.1200    494.1100    494.1000    510.0000    528.0000    514.0000    522.0000    504.0000    537.0000    537.0000    508.0300    510.0000    546.0000    556.0000    546.0000    515.0000    565.0000    604.0000    632.0000    639.0000    662.0000    586.0000    594.0000    595.0000    594.0000    581.0000    615.0000    580.0000    523.0000    469.0000    423.0000    387.0000    387.0000    393.0000    366.0000    357.0000    378.0000    414.0000    431.0000    368.0000    342.0000    340.0000    315.0100    363.0000    388.0000    383.0000    345.0000    315.0000    272.0000    234.0000    283.0000    304.0000    378.0000    281.0000    274.0000    329.0000    346.0000    295.0000    287.0000    266.0000    288.0000    337.0000    345.0000    416.0000    460.0000    493.0000    479.0000    550.0000    536.0000    462.0000    456.0000    499.0000    511.0000    528.0000    519.0000    476.0000    462.0000    404.0000    375.0000    391.0000    429.0000    467.0000    526.0000    575.0000    586.0000    616.0000    555.0000    519.0000    506.0000    508.0000    539.0000    570.0000    566.0000    546.0000    513.0000    483.0000    451.0100    452.0000    473.0000    519.0000    529.0000    477.0000    523.0000    522.0000    512.0000    505.0000    503.0000    497.0100    497.0200    504.0000    542.0000    590.0000    620.0000    614.0000    620.0000    593.0000    575.0000    586.0000    580.0000    536.0000    548.0000    548.0100    571.0000    598.0000    620.0000    662.0000    697.0000    713.0000    743.0000    722.0000    706.0000    695.0000    671.0000    671.0100    671.0200    699.0000    714.0000    742.0000    745.0000    760.0000    737.0000
415.0000    483.0000    554.0000    611.0000    663.0000    790.0000    739.0000    729.0000    806.0000    785.0000    717.0000    718.0000    712.0000    727.0000    833.0000    802.0000    795.0000    797.0000    808.0000    777.0000    680.0000    635.0000    612.0000    586.0000    562.0000    552.0000    541.0000    520.0000    519.0000    535.0000    531.0000    518.0000    505.0000    498.0000    501.0000    506.0000    527.0000    510.0000    503.0000    530.0000    554.0000    581.0000    574.0000    526.0000    512.0000    529.0000    521.0000    513.0000    528.0000    513.0200    514.0000    563.0000    592.0000    618.0000    661.0000    700.0000    676.0000    644.0000    622.0000    605.0000    627.0000    626.0000    599.0000    544.0000    494.0000    471.0000    473.0000    427.0000    443.0000    415.0000    402.0000    393.0000    387.0000    402.0000    383.0000    358.0000    359.0000    331.0000    315.0200    327.0000    332.0000    350.0000    352.0000    311.0000    261.0000    269.0000    316.0000    383.0000    350.0000    286.0000    315.0000    358.0000    412.0000    438.0000    450.0000    387.0000    388.0000    477.0000    479.0000    518.0000    515.0000    534.0000    542.0000    514.0000    456.0200    456.0100    456.0100    492.0000    553.0000    538.0000    484.0000    422.0000    383.0000    375.0100    388.0000    356.0000    391.0000    345.0000    374.0000    500.0000    556.0000    563.0000    508.0100    521.0000    518.0000    520.0000    549.0000    599.0000    569.0000    569.0000    512.0000    464.0000    454.0000    464.0000    504.0000    548.0000    520.0000    494.0000    515.0000    531.0000    546.0000    546.0000    517.0000    521.0000    511.0000    531.0000    577.0000    624.0000    599.0000    573.0000    641.0000    662.0000    631.0000    563.0000    533.0200    533.0300    584.0000    601.0000    629.0000    630.0000    647.0000    708.0000    741.0000    719.0000    698.0000    680.0000    661.0000    660.0000    684.0000    675.0000    682.0000    679.0000    678.0100    704.0000    758.0000    798.0000    828.0000
409.0000    453.0000    510.0000    563.0000    615.0000    627.0000    700.0000    772.0000    781.0000    747.0000    672.0000    654.0000    639.0000    659.0000    729.0000    741.0000    700.0000    722.0000    752.0000    786.0000    672.0000    598.0000    583.0000    575.0000    602.0000    565.0000    521.0000    514.0000    511.0000    519.0000    539.0000    511.0000    530.0000    498.0100    516.0000    537.0000    535.0000    542.0000    532.0000    539.0000    579.0000    617.0000    556.0000    522.0000    512.0100    525.0000    513.0000    513.0100    513.0100    513.0200    521.0000    585.0000    608.0000    651.0000    664.0000    682.0000    649.0000    635.0000    637.0000    605.0100    627.0000    547.0000    502.0000    472.0000    446.0000    412.0000    400.0000    392.0000    412.0000    387.0000    394.0000    386.0000    351.0000    374.0000    337.0000    336.0000    315.0400    315.0300    315.0300    323.0000    345.0000    348.0000    345.0000    297.0000    322.0000    334.0000    356.0000    390.0000    372.0000    311.0000    311.0000    343.0000    355.0000    420.0000    479.0000    540.0000    534.0000    550.0000    538.0000    578.0000    571.0000    565.0000    579.0000    556.0000    514.0000    543.0000    527.0000    539.0000    607.0000    514.0000    441.0000    405.0000    390.0000    386.0000    382.0000    375.0000    313.0100    315.0000    389.0000    539.0000    522.0000    508.0000    521.0000    545.0000    530.0000    529.0000    546.0000    565.0000    504.0000    483.0000    462.0000    454.0100    454.0100    468.0000    504.0000    524.0000    500.0000    535.0000    550.0000    570.0000    538.0000    522.0000    517.0100    519.0000    549.0000    557.0000    585.0000    578.0000    562.0000    590.0000    622.0000    611.0000    567.0000    533.0100    546.0000    583.0000    613.0000    659.0000    686.0000    683.0000    690.0000    715.0000    712.0000    703.0000    683.0000    678.0000    643.0000    663.0000    677.0000    667.0000    661.0000    678.0000    707.0000    725.0000    746.0000    793.0000    850.0000
434.0000    430.0000    468.0000    504.0000    538.0000    628.0000    721.0000    726.0000    733.0000    707.0000    650.0000    610.0000    579.0000    601.0000    683.0000    647.0000    658.0000    654.0000    692.0000    722.0000    721.0000    618.0000    614.0000    596.0000    557.0000    541.0000    549.0000    544.0000    522.0000    510.0100    510.0000    501.0000    499.0000    503.0000    533.0000    530.0000    552.0000    594.0000    590.0000    603.0000    621.0000    593.0000    545.0000    542.0000    512.0200    512.0200    521.0000    513.0100    513.0200    522.0000    547.0000    597.0000    655.0000    681.0000    684.0000    685.0000    665.0000    640.0000    647.0000    620.0000    626.0000    534.0000    463.0000    424.0000    412.0000    382.0000    368.0000    360.0000    362.0000    367.0000    365.0000    361.0000    336.0100    354.0000    341.0000    318.0000    315.0400    316.0000    334.0000    354.0000    350.0000    391.0000    375.0000    307.0000    351.0000    361.0000    363.0000    381.0000    368.0000    311.0100    315.0000    360.0000    386.0000    422.0000    477.0000    560.0000    605.0000    619.0000    632.0000    614.0000    635.0000    607.0000    603.0000    549.0000    603.0000    622.0000    554.0000    577.0000    604.0000    499.0000    450.0000    440.0000    401.0000    427.0000    399.0000    347.0000    347.0000    313.0000    334.0000    537.0000    500.0000    496.0000    485.0000    542.0000    566.0000    568.0000    573.0000    535.0000    492.0000    488.0000    492.0000    476.0000    473.0000    492.0000    489.0000    517.0000    497.0000    505.0000    542.0000    557.0000    530.0000    522.0000    526.0000    520.0000    526.0000    553.0000    568.0000    557.0000    571.0000    564.0000    572.0000    518.0000    533.0000    569.0000    587.0000    619.0000    647.0000    715.0000    749.0000    723.0000    694.0000    676.0000    649.0000    641.0000    648.0000    673.0000    639.0100    645.0000    671.0000    632.0000    659.0000    706.0000    707.0000    689.0000    728.0000    776.0000    837.0000
467.0000    473.0000    486.0000    540.0000    613.0000    701.0000    748.0000    686.0000    666.0000    675.0000    652.0000    609.0000    569.0000    590.0000    653.0000    610.0000    644.0000    641.0000    637.0000    672.0000    707.0000    702.0000    649.0000    577.0000    548.0000    556.0000    585.0000    571.0000    584.0000    551.0000    535.0000    507.0000    513.0000    528.0000    514.0000    529.0000    607.0000    643.0000    694.0000    704.0000    698.0000    607.0000    571.0000    520.0000    524.0000    513.0000    525.0000    513.0200    513.0200    522.0000    539.0000    583.0000    629.0000    668.0000    695.0000    714.0000    703.0000    678.0000    674.0000    674.0000    595.0000    519.0000    451.0000    403.0000    395.0000    392.0000    383.0000    359.0100    359.0000    341.0000    335.0000    352.0000    336.0000    337.0000    325.0000    328.0000    315.0500    332.0000    335.0000    375.0000    385.0000    380.0000    359.0000    327.0000    343.0000    361.0000    389.0000    408.0000    392.0000    319.0000    325.0000    347.0000    375.0000    440.0000    496.0000    600.0000    681.0000    719.0000    654.0000    647.0000    665.0000    641.0000    587.0000    602.0000    644.0000    650.0000    596.0000    633.0000    601.0000    533.0000    481.0000    418.0000    425.0000    498.0000    395.0000    366.0000    358.0000    282.0000    320.0000    434.0000    456.0000    435.0000    479.0000    526.0000    486.0000    506.0000    497.0000    505.0000    500.0000    507.0000    540.0000    473.0000    437.0000    456.0000    431.0000    453.0000    521.0000    549.0000    559.0000    559.0000    556.0000    555.0000    546.0000    524.0000    522.0000    556.0000    555.0000    564.0000    552.0000    482.0000    442.0000    517.0000    606.0000    625.0000    609.0000    656.0000    704.0000    749.0000    700.0000    666.0000    674.0000    648.0000    642.0000    620.0100    627.0000    639.0000    652.0000    656.0000    636.0000    617.0000    656.0000    674.0000    671.0000    689.0000    728.0000    798.0000    798.0000
